ply
format ascii 1.0
element vertex 1228
property float x
property float y
property float z
property uint8 red
property uint8 green
property uint8 blue
end_header
-0.309237 3.224725 -2.353597 77 57 46
-1.636646 4.643098 -2.181143 78 64 59
-1.230668 -1.398260 -1.425497 176 190 208
-1.983909 0.117661 -1.313830 98 80 71
-2.449921 0.531906 -1.296478 79 69 60
-1.585131 3.260646 -2.309069 119 106 98
-1.644632 3.140746 -2.330603 50 36 31
-2.295824 -1.061410 0.428652 158 163 162
11.623946 15.381246 2.483973 80 61 51
2.039291 6.812958 0.891156 9 0 0
-0.061877 -0.990203 -0.134885 31 20 16
0.337687 -0.744607 -0.404272 46 52 60
-1.288153 0.019739 -0.233902 202 207 201
-1.081589 -1.487412 -0.399313 86 87 96
-0.913738 -1.272735 -0.452277 177 178 175
-1.094481 -1.238525 -0.483760 36 37 22
1.012928 3.460473 -1.389627 174 164 159
1.095975 -0.575861 -1.405216 42 36 38
-2.276361 8.359539 -1.017977 169 169 169
0.992842 0.351186 -1.595964 79 69 69
1.085742 -0.512639 -1.642623 69 78 86
-0.162642 -0.403728 -1.292937 36 31 28
1.119662 5.260435 -2.079662 149 139 133
-0.646622 5.205013 -1.707812 29 22 24
-1.446514 -0.498129 -1.038240 63 50 37
-1.344051 4.090744 -1.580920 89 78 75
-0.533324 0.857539 -1.594460 165 155 146
-1.463700 -0.499009 -1.300568 62 48 28
-1.605725 4.773458 -2.168518 66 53 43
-1.380749 3.555962 -2.285631 106 96 93
-1.441427 -1.174896 -1.608184 48 34 33
-1.230540 -1.304289 -1.715597 69 63 68
9.596210 4.934846 2.279268 198 229 242
1.859440 7.592996 1.024655 94 79 65
-0.908906 -1.399992 -0.248063 166 176 183
1.965538 0.788450 -0.449437 200 207 201
-0.987126 -1.511843 -0.396218 161 183 198
-1.045086 -1.240790 -0.472058 143 141 137
1.101825 -0.535712 -1.263999 178 164 154
0.755131 4.002527 -1.297307 222 216 205
-0.275164 4.660433 -1.363621 36 21 19
0.828887 4.425318 -1.678233 154 144 140
-0.682944 5.122434 -1.576068 48 41 43
-1.348567 -1.141209 -0.970183 1 4 0
-2.467557 3.923062 -1.206602 141 127 126
-1.306453 -0.706833 -1.231514 101 83 71
-0.048906 3.642070 -2.297257 70 50 34
-1.630786 -0.587279 -1.285265 32 19 10
-1.625913 -0.587193 -1.287115 32 19 10
-1.623243 -0.602353 -1.307710 88 78 69
-1.638327 3.294890 -1.935620 48 38 36
-1.818430 4.657881 -2.228732 83 72 72
-1.635922 3.352654 -2.310425 55 44 40
-1.206536 -1.320479 -1.766862 18 10 15
-1.757491 -0.953940 -1.534948 10 0 0
-1.175070 -1.311076 -1.810385 50 43 45
3.387845 5.815846 0.673971 86 79 76
-1.020639 -1.249370 -0.409208 149 165 176
0.330472 -0.741019 -0.640752 209 193 159
0.277703 -0.729401 -0.771122 202 171 111
2.925105 2.860142 -1.900564 43 30 20
2.561574 2.694447 -1.801535 43 30 20
-0.734935 3.982063 -1.198750 24 3 0
-1.590921 -0.604643 -0.813222 96 76 63
-1.159031 -1.315556 -1.045888 49 45 33
-1.285095 -1.260744 -1.040017 35 32 16
-2.167800 3.499768 -1.494790 72 64 66
1.427149 7.977218 0.977019 89 62 31
-1.059729 -1.271287 -0.130924 48 58 49
-1.059729 -1.271287 -0.130924 48 58 49
-1.014689 -1.418940 -0.205201 132 146 161
1.102795 -0.651118 -1.375742 94 72 57
-0.408305 4.426458 -1.381771 0 0 0
0.816509 4.444280 -1.877105 141 131 127
-1.403076 -0.195718 -1.051761 112 94 83
-1.500423 2.962738 -1.308399 15 2 0
0.375321 2.405424 -2.210479 23 21 22
-1.557451 3.241380 -1.943597 98 84 81
-1.616554 3.259752 -2.328435 97 84 79
-1.089813 -1.248918 -0.207399 47 55 38
0.339249 -0.703371 -0.726818 254 252 250
-1.180210 -1.225768 -0.519462 26 30 3
-2.005689 4.903089 -0.737053 131 116 99
-0.508944 0.492571 -1.472529 199 188 180
-1.456056 -1.178456 -1.623817 9 0 0
-1.691824 -1.003784 -1.534484 7 0 2
-3.098205 -0.341168 0.099857 133 154 171
-1.110060 -1.213345 -0.394470 157 174 191
0.294010 -0.630109 -0.571304 196 206 197
0.548368 -0.829334 -0.630669 198 204 208
2.759357 2.656236 -1.575109 113 94 71
2.759357 2.656236 -1.575109 113 94 71
-1.140300 -1.216294 -1.416613 33 37 44
-1.720715 4.252464 -2.120265 77 66 62
-0.438764 0.870859 -1.635245 181 172 161
-1.187253 -1.182503 -1.203108 17 16 5
-1.532843 -0.861252 -1.156793 0 0 1
0.364467 2.045498 3.062383 255 254 255
0.361401 2.043892 3.061842 255 254 255
3.863090 4.729528 2.836159 122 113 100
-0.895803 -1.518846 -0.317750 172 178 186
0.345508 -0.628169 -0.813993 184 179 163
0.582296 2.697587 -1.945360 122 112 103
2.116212 6.729880 2.602971 93 75 59
4.419964 5.423052 -1.144024 170 171 174
-1.247030 -1.132461 -1.524583 5 0 8
0.325798 -0.131255 -1.254800 189 168 149
6.988732 1.891206 -1.106856 203 210 200
-1.180914 -1.341192 -1.620460 7 0 4
-0.145775 4.011341 -1.593625 136 126 120
-1.184060 -1.262870 -1.480042 156 193 229
-2.032785 9.726368 0.397746 0 0 0
-3.050172 0.375484 -0.992566 29 30 36
-0.494641 3.599981 -2.278599 119 99 86
1.700617 6.974919 2.621289 106 86 74
-1.461350 3.077460 -1.776392 94 84 81
-0.358698 10.549105 3.069382 168 161 151
-2.155220 2.025762 -1.501584 59 53 50
-1.620682 3.797036 -2.246144 77 72 69
-1.155400 -1.217379 -1.228089 1 6 5
0.329831 -0.793186 -0.149665 175 176 175
-0.714871 5.133683 -1.539324 9 2 4
7.176607 2.218309 -0.449615 167 197 220
-1.740021 3.572538 -2.277270 105 91 88
-1.433553 -1.099114 0.139697 90 103 136
-1.043162 -0.406217 -1.103131 190 183 182
8.655742 4.244189 1.951787 161 170 174
-0.941932 -1.421187 -0.980726 204 219 229
-2.623500 3.548782 -2.139252 119 101 92
-1.835455 3.687829 -1.537211 106 103 109
1.340273 -0.749549 -1.013713 196 196 173
-0.134051 2.976558 -1.816810 2 2 2
-1.526987 4.380533 -1.791718 72 66 71
0.690241 0.186443 2.461214 122 116 106
0.880835 0.225353 2.556628 122 116 106
3.148716 -1.432636 2.369599 110 104 97
3.080948 -1.889570 2.061128 119 109 103
1.647520 7.074025 2.721789 56 43 31
1.716975 6.958311 2.541290 113 91 79
4.120046 5.311005 2.317997 57 43 32
4.311343 5.435541 2.364825 57 43 32
8.611601 4.193660 1.356837 141 146 142
1.639963 8.146768 1.454685 32 16 0
-1.373605 -1.121149 0.058840 177 199 231
5.958462 4.986039 1.187842 60 50 44
4.192082 5.164474 1.091645 39 32 27
1.744075 6.885238 1.225590 97 79 63
4.629567 5.023702 1.050469 137 130 125
8.559005 4.388289 0.956107 125 145 164
1.169050 8.551176 1.301950 54 33 15
-3.080350 -0.807620 0.014061 158 182 211
-0.851656 -1.559651 -0.050243 66 81 99
-0.851656 -1.559651 -0.050243 66 81 99
-1.114708 -1.295235 -0.018770 154 167 190
12.205425 20.302025 2.562606 47 34 22
0.537836 -1.240124 -0.174625 255 252 201
0.279214 -1.105051 -0.167815 202 185 177
0.292350 8.171131 0.079418 134 116 107
1.836269 7.175079 -0.176300 106 99 94
4.754262 5.267257 -0.611029 127 133 137
0.290579 -0.783516 -0.541499 165 155 151
0.779320 -1.749238 -0.668895 31 42 41
8.292107 4.173142 -1.353855 139 137 131
2.647243 6.961513 -0.507107 23 22 25
0.332732 -0.652640 -0.592578 163 172 169
2.942356 -2.990430 -1.064061 110 103 102
5.929420 0.290140 -1.334309 181 202 215
0.345367 -0.729974 -0.649227 254 234 185
1.975270 7.149750 -0.563316 60 53 48
2.922389 0.654679 -0.984480 215 217 208
0.300222 -0.756399 -0.677160 220 190 149
5.696685 0.403696 -1.450424 147 157 155
3.297025 2.626749 -1.082197 143 126 103
5.984458 4.467576 -1.522328 71 75 79
-1.122269 -1.507084 -0.548887 155 163 151
-1.150321 -1.512330 -0.548066 167 169 158
2.782582 6.456939 -1.164335 30 29 34
4.304089 7.610369 -1.393102 30 29 34
2.473838 -0.298027 -1.240022 184 194 199
0.004262 4.212253 -0.732301 28 25 30
2.299966 -0.204673 -1.260256 100 91 87
2.465862 -0.283363 -1.287920 199 214 227
2.568047 -0.292753 -1.332588 160 177 187
2.901995 1.988068 -1.430432 135 116 97
4.553054 5.429142 -1.745592 148 148 148
1.113073 3.507813 -1.089389 68 68 68
0.994118 3.535242 -1.122655 145 138 137
1.936859 0.034108 -1.401119 47 34 29
1.098213 -0.476115 -1.269171 120 81 52
0.634770 5.708797 -1.250311 153 143 141
2.246206 0.942361 -1.583283 98 85 75
1.225364 -0.595397 -1.354544 92 80 74
0.546975 3.641831 -1.248503 27 27 2
0.280102 -0.127603 -1.138916 195 176 157
1.122195 -0.393801 -1.352950 70 53 36
2.495887 6.980256 -1.809459 138 128 124
2.461226 6.944282 -1.800006 138 128 124
-1.646559 4.854624 -0.789507 31 24 26
0.167641 0.016687 -1.214570 188 181 180
1.949602 1.581674 -1.744747 131 115 111
-1.615766 4.646483 -0.895921 119 113 118
-0.066388 -0.099340 -1.180140 158 137 117
-1.302452 -1.416488 -0.818926 176 171 170
-0.096073 -0.115230 -1.193955 177 156 136
-1.635247 4.549613 -0.923827 119 113 118
-1.393318 -0.665387 -0.830708 65 51 40
-0.026513 0.040958 -1.258111 156 137 114
-0.394791 -0.274641 -1.164546 180 157 133
-1.540997 -0.589082 -0.851657 78 60 44
-0.486973 5.264354 -1.461729 87 80 85
-0.782193 -0.542838 -1.117107 151 144 139
-0.782193 -0.542838 -1.117107 151 144 139
-0.548787 5.076315 -1.472603 66 56 56
1.176086 -0.546777 -1.713153 155 151 150
-0.574246 -1.667784 -1.132411 203 222 234
-0.749619 -0.205335 -1.192500 122 107 90
-1.098162 -0.253361 -1.103765 170 174 178
-0.983474 8.828852 -1.702397 111 88 70
-0.972086 8.860838 -1.708795 111 88 70
-1.105271 -0.253647 -1.111433 147 147 150
0.721679 4.388630 -2.010897 39 33 32
-1.431245 -0.500048 -1.000823 32 24 20
0.285781 5.259869 -1.936044 148 138 134
-1.020590 1.693070 -1.332841 129 119 113
-0.723085 5.165394 -1.664914 32 25 22
1.918814 1.770991 -2.406186 47 37 26
0.606597 4.345386 -2.154781 75 57 46
-0.944726 4.533236 -1.623143 89 86 87
0.268391 2.248086 -1.895488 51 46 45
-0.804841 4.513696 -1.713431 89 82 84
-1.833174 0.270586 -1.056916 191 181 177
-1.137110 -1.225910 -1.203459 37 39 29
-1.387668 3.770250 -1.612459 58 45 37
-1.449777 4.047293 -1.616026 40 33 34
0.259884 3.834063 -2.271940 72 62 53
0.985241 2.247041 -2.456426 122 107 97
-1.608832 -0.800998 -1.114860 86 67 44
0.822679 2.144022 -2.474022 120 107 95
-1.684080 3.723987 -1.629924 50 41 44
-0.223044 4.003250 -2.282844 131 111 98
-0.251775 3.391849 -2.311083 97 77 61
-0.364942 3.580080 -2.310792 111 91 78
-1.142530 -1.241558 -1.408076 174 204 239
-1.156711 -1.232372 -1.418346 178 207 242
-0.517990 3.500687 -2.319494 125 105 90
-1.511348 5.191163 -2.102357 69 56 48
-1.134170 -1.223422 -1.441669 191 215 248
-1.309071 -1.308837 -1.352803 108 120 135
-2.177317 3.512452 -1.587556 60 50 50
-0.632655 3.324565 -2.300671 114 93 75
-1.703477 4.944782 -2.065802 51 41 32
-1.591159 -0.614036 -1.375527 108 101 98
-1.622656 4.885024 -2.155102 84 69 59
-1.603563 4.694332 -2.143715 67 54 44
-1.607313 4.772243 -2.180229 59 46 38
-1.561481 4.707428 -2.198697 54 43 36
-1.611545 4.786476 -2.199186 95 81 76
-1.603056 4.726538 -2.192254 61 47 42
-1.624199 4.418852 -2.202926 59 48 43
-1.645230 4.346852 -2.179915 104 93 89
-1.247027 3.699364 -2.280114 77 66 61
-1.691858 4.488236 -2.191520 78 64 59
-1.631970 4.362699 -2.207628 57 46 40
-1.638361 4.352309 -2.202886 57 46 40
-1.576739 4.116619 -2.236053 31 21 19
-1.555271 3.936283 -2.240099 102 95 92
-1.342269 3.533863 -2.291432 99 86 81
-1.419560 3.716857 -2.341372 74 67 62
-1.703777 3.991869 -2.243229 71 60 56
-1.694859 3.919083 -2.244615 93 86 83
-1.552506 3.648351 -2.291865 113 103 101
-1.535396 3.570489 -2.320543 68 58 56
-1.672460 3.670201 -2.269324 43 33 31
-1.707201 3.632552 -2.285865 117 106 104
-1.682115 3.628811 -2.303319 109 98 96
-1.593259 3.341592 -2.314723 35 24 20
-1.724180 3.500136 -2.285456 106 96 91
-1.600162 3.148176 -2.331560 64 51 39
-1.743194 3.459107 -2.314303 75 57 48
-1.662268 3.275471 -2.334210 73 59 54
-1.662268 3.275471 -2.334210 73 59 54
-2.235431 4.276706 -2.208387 95 84 82
-1.723311 3.311639 -2.341378 92 74 67
-1.642386 3.150963 -2.353777 199 184 176
-1.737596 3.260444 -2.328238 81 63 53
-1.673513 3.117741 -2.342798 63 45 38
-1.750705 3.206938 -2.343719 112 92 81
-1.763993 3.204172 -2.362437 102 79 62
-1.737000 3.005926 -2.365820 104 82 73
-1.753630 2.977328 -2.364250 147 125 115
-1.771419 2.970908 -2.381227 170 141 128
-1.770243 2.972130 -2.382237 170 141 128
-0.966509 2.761966 2.154004 110 100 89
4.677421 -2.178538 1.481726 140 147 150
0.456896 8.128852 2.702495 106 96 83
0.581708 8.394496 2.749364 158 150 145
1.951690 6.824256 2.363203 48 30 14
1.635513 10.549746 2.895133 189 198 199
1.995604 6.714307 2.037322 61 49 39
5.301697 5.291098 1.326968 172 166 156
4.986145 5.179105 1.226401 138 130 121
0.518204 11.983695 1.718186 179 184 183
0.501976 -1.248667 0.001060 53 41 30
0.301476 -1.075365 -0.379682 48 41 38
-0.831440 -1.527942 -0.431394 164 163 170
0.309414 -0.761575 -0.583770 96 76 65
3.714032 1.622339 -0.994864 92 75 63
-1.160870 -1.419264 -0.519665 141 141 134
-1.287661 -1.462647 -0.520637 73 68 64
-1.287661 -1.462647 -0.520637 73 68 64
3.432964 2.971606 -1.133730 126 113 96
-1.049153 -1.224070 -0.556619 95 97 90
1.022770 3.475189 -1.131533 29 23 28
0.196761 5.326815 -0.978922 15 5 5
1.713797 7.595176 -1.325754 54 43 32
0.733551 3.608923 -1.136720 180 180 153
2.965390 1.715116 -1.672787 32 17 7
-1.210152 -0.878710 -0.730280 52 56 29
1.004056 4.093153 -1.280209 89 85 66
1.067270 3.575036 -1.295960 130 126 108
1.125883 -0.716813 -1.398012 228 230 228
1.136722 -0.717661 -1.399323 228 230 228
1.178887 -0.410201 -1.424913 23 10 6
3.157988 3.460003 -2.262511 152 151 148
-0.849974 -0.489017 -1.136983 144 134 134
-0.333221 0.231973 -1.463745 159 136 114
0.317022 2.402469 -1.927612 3 1 2
-2.578463 3.867140 -1.071279 139 125 122
-1.433832 -0.515439 -1.139531 73 56 37
0.442492 2.336431 -2.198668 21 16 18
0.324942 2.413618 -2.211644 31 29 30
-1.734007 0.044234 -1.160181 105 85 69
-1.747959 3.629711 -1.635118 107 101 106
-2.279193 3.786057 -1.487977 59 49 49
-2.170893 0.293883 -1.118440 96 78 68
-1.626189 -0.597414 -1.284939 39 21 14
-2.108229 2.110906 -1.418061 111 91 80
-1.539140 -0.789652 -1.311924 70 54 40
-1.747110 4.894821 -2.067265 83 73 67
-1.574985 4.823678 -2.162712 105 92 82
-2.993056 1.045497 -0.989401 128 111 104
-1.641759 4.390684 -2.211333 86 75 69
-1.677563 3.516939 -2.061201 12 2 2
-1.633547 3.669376 -2.255783 30 20 18
-1.703024 3.672227 -2.296692 46 35 31
-1.706422 3.157648 -2.322065 54 39 31
1.717920 7.201500 2.788354 76 63 51
0.878532 11.094773 2.956792 188 193 193
-0.966063 -1.221088 -0.511951 209 214 211
3.262500 2.582197 -1.133623 106 89 70
1.300971 3.831261 -1.034530 158 158 158
1.666095 7.312815 -1.191281 153 142 135
0.933760 3.526253 -1.315318 180 179 159
2.713079 2.735760 -1.848140 41 28 18
0.905023 -0.575695 -1.355476 37 34 40
2.385300 2.377653 -1.808833 75 60 48
1.144499 -0.675515 -1.507357 136 129 124
-0.060770 2.013218 -1.256868 139 143 146
-0.247171 4.643898 -1.330869 120 102 93
-1.364560 -0.656883 -0.841936 45 30 19
2.197262 5.950975 -2.084478 162 149 137
0.997353 0.324890 -1.577405 3 4 6
2.638783 2.651809 -2.252091 57 44 34
1.457128 1.226535 -1.962636 47 36 32
0.195782 0.269398 -1.514554 117 104 97
0.570382 5.755199 -1.969645 17 7 6
1.691003 1.683013 -2.234466 58 48 39
0.347092 2.331015 -1.935808 44 44 44
0.438025 2.532365 -2.140988 51 50 55
-2.821749 0.899687 -0.939507 95 81 80
-1.603319 5.014925 -2.084183 96 83 75
-2.896654 1.012857 -0.982195 138 116 104
-1.540538 4.653834 -2.239059 67 56 52
-1.302622 3.591856 -2.299176 128 117 111
-1.298134 3.595377 -2.301723 128 117 111
-1.939295 4.146976 -2.204130 78 64 59
-1.646016 3.214269 -2.323271 67 53 48
-1.202694 -1.297037 -1.745912 74 68 77
-3.027507 0.380940 -1.103098 42 32 26
4.363328 -1.969898 1.450884 175 183 188
1.712508 6.921970 2.674653 56 41 27
4.275901 5.172739 2.351034 114 101 87
1.354163 12.029421 2.887981 223 240 254
0.291324 -1.182620 0.411712 48 58 70
1.375554 8.417192 1.770102 66 51 39
1.925179 6.825170 1.196594 42 25 12
1.129081 8.501764 0.876340 127 106 88
0.474191 -0.792815 -0.636682 165 165 160
3.357939 2.428180 -0.960398 163 153 144
0.192193 -0.791573 -0.652362 170 157 126
1.857518 -0.037302 -1.296916 134 120 115
2.253893 7.170306 -1.859746 127 117 108
-0.453033 4.418828 -1.334136 120 102 91
0.838623 4.457116 -1.743961 49 39 35
-1.452290 -0.790241 -0.868356 35 21 0
-0.352600 -0.389100 -1.268931 177 173 178
1.268943 0.731201 -1.918344 47 37 28
1.198345 0.914790 -1.981855 47 37 28
1.340486 0.941074 -2.033391 47 37 28
0.414109 2.571875 -2.214383 0 0 2
-1.228360 3.724207 -1.747308 23 9 4
-0.077885 3.415266 -2.324003 68 55 47
-1.655003 3.278056 -2.332417 77 63 58
-1.463356 -1.160115 -1.627192 45 35 33
-2.125975 4.211475 -2.327707 32 16 10
-1.751702 3.026655 -2.380020 107 80 66
-2.453136 3.975324 -2.230363 87 80 75
1.786037 6.890712 3.053603 71 58 44
9.453416 5.113389 1.145782 164 195 212
5.928449 0.512596 0.059202 177 182 181
2.960301 -3.054839 -0.906855 165 182 199
-0.974431 -1.222690 -0.487328 143 144 134
1.797400 7.356285 -1.095632 125 115 110
2.632424 0.960753 -1.553252 77 62 50
1.334677 5.580759 -2.086439 136 125 119
-2.483243 3.853520 -1.439237 132 121 119
-1.622096 4.519281 -2.145312 37 26 22
-1.526567 4.029805 -2.231456 69 62 59
-1.339164 3.665792 -2.300902 97 90 87
-1.464234 -1.150924 -1.607630 16 6 6
-1.455964 -1.153434 -1.612090 16 6 6
-1.717211 -0.979474 -1.560645 36 25 28
0.474758 -1.323499 -0.015716 138 150 163
-1.284621 -1.232906 -0.593744 36 43 16
1.215688 3.755038 -1.096484 152 152 152
0.940890 5.985512 -1.169467 144 134 132
-0.710294 4.032652 -1.625633 113 103 103
-2.167800 3.499768 -1.494790 71 64 66
-1.376773 -0.703631 -1.404983 41 27 17
-1.650952 5.037792 -2.070577 95 81 76
-2.010437 3.376420 -1.730677 21 11 11
1.530561 7.089916 2.569454 59 46 34
1.016512 11.903587 3.367625 156 156 149
0.671129 12.131177 1.946215 148 135 123
0.967368 8.509514 1.249796 52 39 29
4.879316 3.797914 -1.450748 134 132 128
-1.741457 5.133082 -0.687168 115 105 94
-1.533323 4.417655 -1.113890 32 26 31
-0.472518 4.377594 -1.610812 132 121 117
-0.242640 3.672770 -2.301774 130 110 97
-1.231608 -0.458416 -1.417981 52 49 53
-1.693815 -1.003017 -1.533957 11 0 3
5.730368 -0.008711 1.623519 154 173 185
1.797937 12.268165 2.124041 175 202 226
3.473641 2.555109 -0.903772 173 168 163
5.747059 0.062251 -1.491288 205 210 204
2.222508 -0.267752 -1.047189 203 208 204
-1.320336 -0.967354 -0.772719 22 27 0
0.496038 4.094319 -1.664494 4 0 0
-0.580550 2.788688 -1.526998 0 0 2
-1.977736 4.412633 -2.158472 105 91 90
-1.766818 -0.942111 -1.551503 9 0 1
-0.888564 3.704059 -1.490517 135 123 117
-2.506320 3.793025 -1.225614 16 9 8
-1.804694 4.708534 -1.866725 125 114 108
0.440351 -1.258040 -0.040638 91 76 57
-0.985871 -1.233846 -0.541641 205 207 204
3.121851 3.051943 -2.127192 72 59 47
-2.136174 4.386770 -1.856085 140 129 127
-1.202416 -1.283131 -1.778339 53 52 55
1.030601 0.365144 2.653530 120 110 99
5.555878 0.505388 0.837386 194 228 250
-1.147677 5.255904 -1.008441 15 9 14
0.513550 2.419261 -1.765511 1 1 1
-1.506342 -0.481642 -1.519466 45 44 51
5.938782 3.750432 2.206551 112 111 100
0.970159 0.163522 -1.506532 104 118 133
-1.467223 -0.779524 -0.963274 70 50 29
-1.127953 -1.358198 -1.642647 2 1 6
2.619389 -2.051815 2.234892 113 100 88
-1.120490 -1.451455 -0.121043 59 69 72
-1.017627 -0.759314 -1.453436 98 95 99
-2.702326 7.637671 -1.094192 136 126 120
2.933748 0.261807 2.976948 158 152 142
5.410504 -0.086398 2.408200 145 152 151
2.501237 6.893502 -1.692909 108 100 100
3.080996 3.178523 -2.341127 45 30 22
1.648170 2.722034 -2.370805 76 60 44
-2.257524 0.328190 -1.085489 114 99 91
-0.531147 3.831079 -2.286919 158 137 119
1.481196 8.103373 2.741849 9 0 0
1.961622 1.780069 -2.480429 59 48 38
2.223984 6.892918 0.255949 82 72 70
2.826371 6.653905 -1.387867 172 159 152
-1.605784 4.044160 -2.217382 77 67 65
3.594268 5.612896 2.356551 49 31 18
-1.950347 3.433778 -1.681293 89 78 81
3.090388 2.033375 -1.097056 144 135 129
1.593503 7.578134 -1.007125 120 102 88
4.426964 -1.241343 -2.008477 164 182 201
0.725684 2.225581 -2.447819 148 138 127
2.506294 6.630169 -1.135823 28 25 30
-2.111558 -1.109412 -0.595437 164 162 153
-0.934044 -1.181155 -0.917599 9 17 4
-1.079879 -1.449712 -1.558802 149 144 145
-0.984277 -1.318637 -0.269212 154 163 168
-1.575419 4.513741 1.936754 158 141 118
4.161052 0.942267 2.381969 101 97 89
3.504989 3.571252 2.787359 150 146 136
2.854321 6.365171 2.926502 23 14 12
5.544838 1.898424 2.404036 153 153 148
6.817742 2.860673 2.717058 115 111 104
4.353900 5.108608 2.297648 60 47 35
1.298499 11.989131 3.020142 189 203 212
4.635784 4.932415 2.054524 125 112 99
2.061802 6.877277 2.080451 79 66 52
1.904544 6.617965 1.909418 46 35 30
1.874227 6.982319 1.452730 55 37 24
8.783270 4.451017 1.384037 212 239 255
1.834905 7.758773 1.371394 18 2 0
3.567460 7.867349 0.954498 0 0 0
3.204119 6.093087 0.654430 108 103 100
4.577148 5.066869 0.498772 143 136 131
3.203426 6.117878 0.524259 110 100 95
1.930658 7.772212 0.638989 42 24 7
2.725413 6.650912 0.102019 45 40 39
2.725413 6.650912 0.102019 45 40 39
3.775822 5.545531 -0.167820 116 114 115
5.849589 0.033645 -0.755763 184 203 211
5.906869 0.579511 -0.735772 174 183 182
1.653847 7.434680 -0.000957 120 105 91
2.875503 -3.097860 -0.902177 173 180 188
2.656952 -3.096267 -1.103699 163 156 153
0.352192 -0.727741 -0.687119 255 241 171
-1.273757 -1.483535 -0.497103 88 81 78
3.200959 2.172978 -1.048770 192 188 178
0.354110 -0.748854 -0.719969 215 181 119
4.160855 5.627510 -1.172512 166 164 165
2.484113 -0.280029 -1.232926 109 119 124
5.731382 8.191567 -1.654797 7 6 11
4.659937 5.320553 -1.557826 149 156 161
2.000665 0.327069 -1.220773 109 108 113
2.527287 -0.412916 -1.417890 197 216 227
2.367866 0.767790 -1.378954 83 68 56
5.641733 4.768403 -2.092444 193 186 179
4.494745 -1.282544 -1.923768 204 219 221
0.666581 3.529633 -1.202336 68 76 40
0.355824 -0.070772 -1.134065 100 82 72
3.077410 6.494916 -1.824778 65 58 55
0.678553 3.505314 -1.259984 48 57 27
0.198169 -0.115304 -1.142076 192 170 150
-1.296502 -1.439349 -0.784285 102 97 94
0.068536 -0.113560 -1.154896 198 177 157
1.226450 0.396527 -1.480780 37 27 25
3.230918 3.481467 -2.045290 154 147 144
-1.738846 -1.270837 -0.688134 171 166 165
-1.271387 -1.470026 -0.820998 89 84 81
-1.271387 -1.470026 -0.820998 89 84 81
-0.126607 -0.162791 -1.175905 202 181 161
-0.017482 0.020889 -1.233508 156 139 118
-1.342640 -0.788305 -0.862581 83 70 53
-0.312928 -0.184107 -1.179948 165 142 118
-0.312928 -0.184107 -1.179948 165 142 118
2.161089 5.978109 -2.051601 130 110 94
1.859415 5.543221 -2.079061 131 121 115
-0.719465 -0.546437 -1.147800 179 169 169
2.827245 2.809075 -2.393847 35 22 12
-1.089171 -0.256202 -1.103836 170 176 182
-1.448711 3.539334 -1.178486 116 106 104
0.942446 5.170181 -2.191333 123 113 104
2.259532 2.028391 -2.491971 37 24 16
-1.338190 -1.243570 -1.045357 111 107 97
-0.353262 0.685693 -1.507887 71 60 54
-0.408478 0.245213 -1.464630 152 126 105
-1.359247 -1.241626 -1.044778 73 69 59
-1.477402 -0.057695 -1.072209 145 142 138
1.334016 3.168723 -2.292197 109 102 99
1.128806 3.088084 -2.224501 122 119 120
-1.685135 0.058784 -1.105078 160 138 123
1.048531 2.314055 -2.431773 141 124 115
-1.649729 3.040331 -1.426647 103 96 95
-1.600775 3.118203 -1.468266 109 99 99
2.520767 -2.528488 -2.705687 126 115 103
-2.069601 0.294361 -1.088218 117 97 81
-2.142989 0.290950 -1.089735 111 91 75
-1.798640 3.337372 -1.627414 83 72 68
-1.484314 -0.830772 -1.313020 9 2 0
-0.146343 3.337952 -2.388963 95 76 64
-1.598207 5.898963 -2.042027 105 94 97
-1.578169 4.929679 -2.111562 70 56 46
-1.563929 4.693653 -2.177688 93 80 72
-2.186132 0.297521 -1.267904 91 76 68
-1.668110 4.372934 -2.163698 113 102 98
-1.281129 3.511973 -2.325428 127 114 106
-2.813427 0.772171 -1.091616 103 85 74
-1.623104 3.647261 -2.268862 46 36 34
-1.515844 3.492245 -2.302076 106 99 96
-1.603129 3.596432 -2.300725 38 28 26
-1.666229 3.421608 -2.314684 123 112 106
-1.606668 3.116326 -2.336994 52 39 29
-1.669406 3.126190 -2.320109 66 51 46
-1.740762 3.001438 -2.362730 100 80 71
-1.617032 -1.035553 -1.674685 47 43 56
0.924527 0.276014 2.536931 161 155 145
3.569148 -1.290207 2.635419 119 114 107
5.472130 5.291913 2.079794 96 83 71
-1.242568 -1.505257 -0.001295 187 217 245
1.692146 7.440977 1.095423 41 25 11
1.188981 8.467055 0.814010 122 101 80
2.034345 7.626752 0.581880 109 92 73
5.987278 4.371810 -1.210741 135 130 124
3.115896 1.917536 -1.175284 153 140 132
-1.143205 -0.913846 -0.608440 29 38 11
-1.316702 5.759499 -0.597192 98 87 83
3.301647 6.600905 -1.702039 56 49 46
0.740713 3.693864 -1.179339 56 57 23
1.029333 -0.470737 -1.351127 23 5 1
0.648343 3.788452 -1.306148 223 213 193
1.541380 0.170799 -1.543579 110 103 102
-1.327882 -1.429660 -0.789307 171 166 163
-0.037185 -0.161638 -1.150627 196 175 155
-1.363331 -1.398553 -0.794720 68 63 62
-0.138796 -0.112074 -1.197840 192 171 151
0.066730 0.074133 -1.259674 166 173 174
-0.029111 -0.015109 -1.244910 181 162 142
3.301790 3.509385 -2.257305 131 129 132
-0.729668 3.943527 -1.235181 125 104 83
2.342862 2.433642 -2.216672 59 45 34
-0.488472 -0.290306 -1.265857 177 182 181
-1.105170 -0.223790 -1.102610 124 128 132
-1.093190 -0.403641 -1.137872 144 133 131
-1.050490 -0.424069 -1.157139 158 148 144
-1.482025 -0.490876 -1.105211 71 57 37
-1.717076 0.205367 -1.071468 178 173 170
2.670876 -2.524019 -2.602980 124 114 110
-2.426462 3.885239 -1.210674 126 119 116
-1.508934 -0.485162 -1.268727 59 46 33
-1.771086 3.571927 -1.634577 54 44 47
-1.604932 5.967565 -2.067258 114 103 106
-1.616704 5.944254 -2.059038 114 103 106
-0.588657 3.316170 -2.334829 104 83 65
-1.581711 -0.621697 -1.384851 54 44 47
-2.322948 1.842820 -1.503982 102 87 79
-2.182490 0.219675 -1.346258 109 87 75
-1.691970 3.660427 -2.270576 28 18 16
-1.561204 3.206620 -2.342005 127 114 106
-1.699441 3.165448 -2.327743 56 41 33
-1.641393 3.087522 -2.352988 177 157 148
-1.701074 3.056691 -2.355556 137 119 106
-1.709564 3.047406 -2.349367 137 119 106
-1.621362 -1.037411 -1.691457 52 51 60
0.873728 10.285928 3.454954 252 250 242
1.683624 7.206740 2.254212 112 95 77
7.386456 1.996477 -0.521584 188 206 211
4.066019 5.607866 -0.383057 47 45 46
2.747828 -3.163982 -0.902784 185 194 208
0.332629 -0.595874 -0.643223 162 160 152
-1.161044 -1.397498 -0.526657 156 159 145
3.572696 6.101945 -1.392093 161 158 162
2.406418 -0.358731 -1.354410 184 191 202
1.138075 -0.539236 -1.280141 173 159 149
0.636467 3.361343 -1.211099 96 97 56
1.777878 0.260972 -1.555684 38 31 28
1.604772 1.372296 -1.603818 139 137 135
-1.054110 5.331974 -1.004274 54 51 55
-1.254949 -1.422836 -0.832214 76 74 70
-0.411479 -0.230769 -1.175457 154 130 105
-0.478958 5.168557 -1.474484 10 0 0
2.356274 2.305377 -2.282216 58 44 39
-1.179907 -0.257755 -1.109476 128 109 98
-0.388601 0.159576 -1.487732 133 111 92
-0.890866 4.577263 -1.581950 101 94 93
-0.623099 5.058025 -1.721096 103 98 97
-1.509771 2.906476 -1.346602 128 113 103
1.450768 1.839735 -2.431906 136 113 89
0.425112 4.073755 -2.223734 73 55 48
-1.618495 3.053959 -1.378874 98 91 93
2.616358 -2.585936 -2.691296 122 112 107
2.616358 -2.585936 -2.691296 122 112 107
-1.080363 -0.802220 -1.344692 36 21 13
2.654675 -2.574947 -2.720437 56 46 40
-2.127245 0.393299 -1.061552 211 206 205
-1.520506 6.032828 -2.021773 115 104 107
-1.520506 6.032828 -2.021773 115 104 107
-1.502626 2.958903 -1.726037 135 120 115
-1.532928 -0.806221 -1.305397 64 47 35
-0.440540 3.461099 -2.292319 105 85 72
-1.512922 -0.552592 -1.387602 53 42 38
-1.065659 -1.452774 -1.557407 130 120 123
-1.731073 4.884341 -2.084841 19 7 1
-1.809314 3.226146 -1.908753 101 91 90
-1.439983 3.598937 -2.260562 13 6 3
-1.666201 3.814532 -2.275198 74 64 60
-2.045733 3.990245 -2.193325 91 77 72
-1.628429 3.116508 -2.352796 63 47 37
-1.786419 2.935416 -2.378381 99 71 54
-2.985034 0.873678 -1.236602 89 74 64
4.474895 5.010027 2.158584 121 106 89
0.384667 -0.766928 -0.429383 180 179 185
3.241162 6.350317 -1.510772 113 106 105
2.276396 7.063776 -1.762874 153 143 139
-0.074108 -0.227606 -1.107434 49 42 40
-1.294569 -1.469195 -0.801446 111 106 105
0.463803 2.096792 -1.616162 6 0 5
-1.183537 -1.350052 -1.022623 133 132 125
-1.749557 0.224792 -1.071941 172 172 169
-1.443681 2.974837 -1.475846 127 109 102
1.042684 1.907885 -2.497264 137 114 92
0.743391 2.103509 -2.472570 144 131 121
-1.499740 -0.482781 -1.287151 25 14 6
-1.759066 3.366217 -1.660591 25 14 10
-1.816384 3.356890 -1.642488 86 75 71
-2.081907 2.127854 -1.451260 102 86 75
-1.688700 4.925686 -2.125636 131 118 110
-1.480415 3.401850 -2.332508 91 81 77
-2.193928 3.983228 -2.201384 33 15 8
-2.193928 3.983228 -2.201384 33 15 8
0.512226 7.869157 3.065373 110 96 77
2.834443 -3.164618 -0.802423 60 60 60
2.864158 -3.091119 -0.929005 170 186 196
2.784306 -3.137079 -0.944229 176 184 200
7.626933 2.129301 -1.387054 206 213 205
1.520976 -2.398076 -0.996686 145 145 139
-1.171424 -0.888870 -0.711545 43 51 16
1.097314 -0.537297 -1.216602 144 146 150
1.474691 5.166031 -2.057125 135 125 119
1.584578 5.533449 -2.129844 164 154 148
1.381426 5.122847 -2.152421 135 125 119
2.319370 2.576967 -2.429896 89 67 50
-0.247425 5.043942 -1.935172 114 107 104
2.680822 -2.552482 -2.735632 154 144 135
-2.085175 0.279070 -1.110956 138 118 102
-1.372900 1.574867 -1.580165 5 3 5
-1.686226 4.906376 -2.160344 83 69 64
-1.671867 4.522317 -2.182192 82 68 63
-1.428317 3.651827 -2.221797 90 83 80
-1.537394 3.478966 -2.299234 102 95 92
-1.797221 3.513874 -2.256297 62 44 35
-2.544907 -0.841230 0.047780 194 224 246
8.848460 4.495173 1.072705 167 186 201
0.133123 -1.289419 -0.143868 199 208 220
-0.954891 -1.380529 -0.380846 168 183 187
4.248476 2.329348 -0.855500 107 100 93
-1.039790 -1.473699 -0.443357 158 160 153
5.662832 0.216336 -1.474561 181 197 205
-1.234702 -0.898694 -0.727899 0 5 0
0.980696 3.101185 -2.050117 121 121 118
0.423872 2.601358 -1.969196 125 120 119
-1.271250 4.026496 -1.594627 97 83 82
-1.542438 -0.574322 -1.316158 35 24 10
-1.788476 4.789610 -1.803043 113 102 98
-1.873037 -0.206894 -1.413594 103 107 115
-2.080215 3.367672 -2.338599 123 95 72
-1.058499 -1.269115 -0.159722 47 57 52
1.459103 3.485931 -1.354199 160 141 120
2.149060 0.951550 -1.600528 91 76 66
0.547459 2.675576 -2.015270 130 123 121
0.634890 -0.482914 2.307614 140 127 110
1.728191 7.042489 1.994150 77 59 43
10.210972 1.149360 0.922391 146 173 195
3.314240 3.090142 -1.374033 71 54 35
-1.582376 2.951662 -1.398632 129 111 104
-2.559689 3.428853 -1.144629 23 13 11
-1.617618 3.818294 -1.571416 59 46 44
-1.359368 3.536363 -2.264081 127 116 110
-1.314142 -0.569879 -1.231189 45 27 14
-2.339458 4.053605 -1.418726 105 95 93
1.148372 8.575019 2.698957 75 62 48
0.396535 -1.284297 -0.237633 55 50 26
5.237963 0.013933 -1.370996 203 208 200
-1.501053 -0.797234 -1.367831 2 0 0
-3.005599 0.432299 -1.055816 126 105 87
-1.346669 -1.333853 -0.537237 46 58 30
-1.370529 4.581644 -1.166285 36 30 35
0.108630 5.252617 -1.667840 38 28 24
0.495921 2.412311 -1.764847 2 2 1
-1.873727 0.178168 -1.070772 124 105 86
-2.993657 0.342442 -1.012440 129 108 88
-2.581830 -0.325838 0.132195 204 231 249
4.404379 5.155982 0.518990 157 150 149
-0.581079 1.912177 -1.875157 1 1 1
-0.558250 1.922230 -1.881820 1 1 1
6.391069 5.340683 1.444466 9 7 5
1.431267 7.417209 0.043900 88 73 56
5.594426 -0.035833 -1.300083 203 208 198
0.269509 -0.639795 -0.236001 174 183 184
1.987282 7.054442 -0.775728 102 95 90
6.630571 3.547076 3.926552 146 144 138
-1.169075 -1.166411 -0.056856 39 46 42
6.939339 1.513260 -0.888707 201 208 200
1.496480 1.187831 3.047096 115 105 94
3.329605 2.752672 -2.313222 71 56 42
2.495528 6.886460 -1.687683 158 148 144
-1.434641 -0.508912 -0.999332 130 115 107
-1.349369 -0.266884 -1.172855 153 135 126
2.241610 0.259387 -1.225830 86 75 70
-1.485198 -0.841747 -1.134663 67 50 31
4.089296 5.032420 1.847339 86 78 75
-1.578901 3.835048 -2.283320 26 23 19
2.855023 6.490276 -0.169056 80 75 73
-1.431752 -0.507895 -1.002358 116 98 86
-0.199181 2.882077 -1.920809 1 0 5
2.280694 6.890648 -0.119893 127 121 117
1.500687 8.024323 2.842628 66 54 49
0.823169 -1.452503 -0.244453 164 172 159
-0.936476 -1.426635 -0.396756 186 193 193
10.998688 0.742674 -3.868840 46 36 33
-1.457392 3.037689 -1.577677 126 115 106
0.391738 2.377793 -2.221391 45 43 44
-0.407259 6.851086 3.650063 122 112 101
0.548975 0.688514 -1.743636 75 62 52
4.164086 -1.748693 1.927160 105 98 91
3.616528 -1.515449 2.533613 156 151 144
-1.004818 2.163527 1.880811 116 106 93
6.830959 3.030010 2.709769 109 109 102
4.056485 0.800750 1.768312 98 98 91
5.715489 -0.100603 1.796917 154 159 153
5.723460 1.368161 1.763071 140 150 148
1.431521 8.132366 2.274426 72 59 51
1.864844 7.803679 1.773083 13 3 0
1.886130 7.820266 1.645668 37 27 18
14.285693 18.192478 2.212550 52 42 38
4.316751 5.066365 0.359479 156 146 141
8.608058 4.094557 -0.201592 61 59 53
7.808895 3.654682 -0.455647 69 58 54
2.675504 6.599599 0.073782 110 105 102
0.268886 -1.060478 -0.363798 108 101 94
4.433912 5.113928 -0.246919 129 127 123
2.804046 6.577412 -0.012768 65 60 57
2.755213 -3.193897 -0.796238 177 183 188
-0.761174 -1.044229 -0.339488 68 63 51
2.816947 -3.119809 -0.958765 87 96 108
3.533727 5.859720 -0.575672 36 34 32
0.343125 -0.666393 -0.617836 182 189 185
2.223384 6.902451 -0.448079 129 124 121
3.350135 2.867556 -0.840517 204 198 188
3.683636 2.731479 -0.892359 119 119 113
2.919326 -2.441848 -1.097293 152 156 126
2.919326 -2.441848 -1.097293 152 156 126
1.931366 7.321724 -0.640996 128 121 116
3.943626 5.731858 -1.091009 145 143 141
3.986029 5.759134 -1.165288 157 155 153
3.025096 1.826410 -1.255229 143 125 110
1.930598 0.076315 -1.266251 164 159 154
3.518849 6.138671 -1.509218 61 55 54
2.749942 2.442947 -1.507327 52 34 21
0.430679 5.647435 -1.050689 10 1 1
1.634400 7.662019 -1.300389 118 103 91
1.762995 0.081412 -1.425459 107 97 91
2.293482 0.928682 -1.572373 105 90 80
1.847169 0.112783 -1.473312 118 108 102
2.314179 0.181427 -1.650796 41 31 28
-0.144038 5.996231 -1.141446 110 105 107
0.836807 3.141908 -1.386076 169 169 166
-1.382342 -1.359257 -0.794518 171 169 165
0.105126 0.014328 -1.215190 149 137 125
-1.308454 -0.796002 -0.861659 24 13 2
-1.322629 -0.731165 -0.919124 107 87 74
0.990901 0.336806 -1.646049 7 3 2
-1.538992 -0.578938 -0.869474 47 30 9
0.129435 0.176273 -1.407527 182 175 170
-0.813784 -0.453861 -1.120197 160 155 155
-1.513026 4.525842 -1.083126 29 23 28
-1.210958 -1.285021 -1.028619 0 0 0
0.076326 0.276796 -1.530527 173 158 146
0.614300 3.491703 -1.911494 4 2 0
-1.167092 -0.345124 -1.157642 142 124 115
2.248473 1.883633 -2.439593 60 49 42
-0.658988 4.109321 -1.562595 148 138 134
-1.537967 -0.473521 -1.079010 79 64 47
-0.817458 4.591207 -1.633781 117 112 111
-0.831629 4.699580 -1.646300 98 93 95
0.569408 4.587541 -2.210876 86 68 55
0.314151 4.423317 -2.192833 131 113 100
1.149452 2.395951 -2.450512 113 98 88
2.846991 -2.769907 -2.807226 73 63 58
2.760031 -2.633877 -2.804893 62 51 45
0.033728 3.836812 -2.268456 100 80 64
0.807757 2.094753 -2.476642 115 102 92
-2.105595 0.351434 -1.097039 84 71 59
-0.357232 3.570889 -2.283463 137 117 104
-0.280518 3.345843 -2.316816 80 60 44
-1.424940 5.909276 -2.057704 141 128 120
-1.536310 5.885351 -2.010183 82 68 65
-1.972819 1.741816 -1.395091 104 101 105
-1.547920 5.687084 -2.018023 162 149 139
-1.571953 5.857235 -2.042590 152 138 137
-1.907835 3.454999 -1.643907 98 92 97
-0.538774 3.291700 -2.350634 151 132 113
-0.543834 3.287802 -2.347847 151 132 113
-1.541329 4.931416 -2.145819 107 92 82
-1.072006 3.681618 -2.295659 130 115 105
-1.600098 4.731090 -2.193895 56 43 35
-1.278781 3.714727 -2.320127 81 74 71
-1.687673 4.394989 -2.198357 73 63 54
-1.382990 3.430316 -2.356628 123 113 110
-1.679782 3.750960 -2.273454 90 80 78
-1.685258 3.625991 -2.302278 109 98 96
-1.690047 3.587190 -2.303425 95 85 82
-1.668558 3.418485 -2.312678 121 111 109
-1.539326 3.150866 -2.360214 109 96 86
-1.650402 3.115166 -2.303018 162 148 140
-1.662471 3.034524 -2.367081 65 50 38
-1.748662 2.913866 -2.379323 177 155 142
-0.184530 3.755893 2.742477 112 102 91
2.592793 -1.445690 2.164722 147 145 139
2.999103 -2.107954 2.037831 155 150 143
5.141305 0.872834 2.580369 102 98 88
0.421723 8.070086 2.684652 107 97 84
0.730828 8.617496 2.787545 117 112 105
3.510445 5.649013 2.561013 29 13 2
3.038322 6.021228 2.500159 121 98 76
5.424207 5.265753 2.271337 87 77 66
5.458436 5.272274 2.133138 93 80 68
0.578559 -1.322724 0.014611 61 56 53
3.736500 -3.014815 -0.156389 60 78 98
1.220125 8.460333 1.168013 61 46 34
2.248181 5.272418 0.686311 19 9 5
0.278291 -1.042791 -0.127491 165 166 167
0.259028 -1.033280 -0.170751 163 166 165
7.803998 3.773707 -0.263702 66 55 48
0.490590 -0.681133 -0.467724 160 172 178
2.622451 -3.165678 -0.972473 188 188 200
-2.559677 -0.964517 -0.257451 112 105 102
3.312045 2.230436 -1.008427 173 168 163
1.205730 3.754685 -0.668109 112 110 111
3.277786 2.829098 -1.096368 145 126 105
1.575015 3.700176 -0.791199 162 160 161
3.053542 1.906644 -1.210466 146 131 121
1.165111 -0.527948 -1.348716 97 77 65
0.658670 5.723211 -1.191424 117 107 105
1.629226 0.197632 -1.607676 125 124 127
-0.766271 4.003622 -1.196502 127 109 100
1.659870 5.550496 -2.067218 138 128 124
-0.747744 5.308531 -1.334184 68 63 69
-0.416739 5.306440 -1.454098 59 48 51
-0.975680 -0.208398 -1.136071 182 175 170
-0.635307 4.944858 -1.430095 67 57 57
-0.204514 4.725249 -1.621859 157 142 133
-0.625755 5.222907 -1.651966 16 9 11
0.569811 2.397216 -1.941278 120 107 98
0.450075 2.360711 -2.130456 158 149 147
2.447273 -2.610796 -2.622115 124 114 110
-0.270202 2.926986 -1.934717 23 20 24
-0.270202 2.926986 -1.934717 23 20 24
-2.418915 3.855450 -1.215588 45 38 35
-1.999579 0.284348 -1.116553 143 123 107
-1.425875 6.102111 -2.034580 153 139 136
-1.582476 -0.664979 -1.331471 75 62 50
-0.417103 3.808385 -2.307078 112 92 79
-1.503631 5.989851 -2.010771 103 89 88
-1.522504 5.948548 -2.021583 154 140 139
-0.257879 3.292777 -2.355718 110 90 74
-1.435350 6.156288 -2.130676 105 91 92
-1.436547 6.154343 -2.130578 105 91 92
-1.454826 5.726092 -2.096518 71 58 51
-1.557734 5.977778 -2.068974 104 92 95
-1.791955 3.438491 -1.697300 79 68 64
-1.539290 5.145557 -2.064519 144 131 123
-1.553437 4.855932 -2.128143 43 30 20
-2.016156 3.342087 -1.778094 19 8 8
-1.701145 4.778131 -2.142508 93 78 70
-1.648914 4.315386 -2.205096 96 85 81
-1.709850 4.313745 -2.209549 81 71 62
-1.735316 4.272377 -2.211048 48 38 29
-1.335812 3.411236 -2.320692 112 99 91
-1.358278 3.356254 -2.304133 112 99 91
-1.556208 3.165610 -2.326892 132 119 111
-1.556208 3.165610 -2.326892 132 119 111
-1.625302 3.175740 -2.328113 161 147 141
-1.626056 -1.025337 -1.688262 106 96 104
-3.079538 0.574493 -1.120408 107 84 64
4.995304 0.611324 2.554945 105 96 85
2.211257 11.480973 3.193489 146 155 150
0.534206 -1.254639 -0.183438 219 193 124
5.769197 0.254652 -0.825559 148 159 157
0.656259 -0.439686 -0.406853 179 193 202
1.790482 7.707721 -0.102245 77 62 48
1.790482 7.707721 -0.102245 77 62 48
0.768337 2.183215 -1.715185 84 73 71
2.139534 2.639237 -2.391192 129 106 84
-1.439606 -0.482734 -1.050362 99 88 84
2.099506 1.724216 -2.427516 62 51 45
0.908194 4.976267 -2.168799 156 146 137
-0.560991 0.406664 -1.471621 190 177 165
-0.710784 4.310646 -1.657683 81 70 66
-1.678599 0.046529 -1.098030 126 105 92
1.308494 1.836622 -2.494868 140 117 93
-1.998688 8.511971 -1.652135 116 111 108
-2.424518 3.851202 -1.232286 128 118 116
-0.473369 3.291589 -2.328751 93 73 57
-4.289105 -0.110118 -0.123498 29 26 32
-1.546019 4.803941 -2.168427 91 78 68
-1.547298 4.799640 -2.165926 91 78 68
-1.658551 -1.010422 -1.702019 75 67 74
-1.721393 2.983472 -2.361397 141 122 113
0.438171 8.278456 2.685582 113 111 107
2.102720 11.240433 3.078008 179 189 190
-0.027072 -1.207688 0.083559 41 46 61
1.204437 8.229698 -0.636727 152 142 133
25.014528 2.870432 -8.262668 87 77 69
-0.657147 5.122772 -1.477502 84 77 79
2.609658 -2.605393 -2.669729 51 41 37
-1.577818 3.894443 -1.506498 105 99 105
0.745716 2.155296 -2.461545 159 146 136
-1.640399 3.440143 -1.629054 49 35 32
-1.562517 -0.622475 -1.310534 47 33 30
-0.153116 3.321313 -2.324188 63 52 46
-1.922803 3.318696 -1.644403 79 63 58
-1.614581 4.354379 -2.176040 64 53 49
-1.764945 3.242859 -2.305425 90 72 64
4.275934 5.727251 2.985065 80 72 65
1.475437 8.130610 2.623669 59 49 40
5.816028 -0.105200 1.733101 137 145 147
-2.664050 -0.945391 0.017151 174 195 211
0.337454 -0.740942 -0.453789 60 62 62
5.574135 0.403260 -1.358259 151 150 143
2.323736 -0.167077 -1.502733 121 114 113
2.975410 3.377874 -1.952650 157 147 141
-0.241116 4.696482 -1.376278 26 9 7
0.607137 4.088525 -1.655117 44 37 34
1.685906 5.800468 -2.071731 139 128 122
0.177612 0.391063 -1.635234 184 170 162
2.094094 1.868844 -2.501308 77 62 50
-1.732245 0.099892 -1.066880 125 112 102
-1.474567 3.069807 -1.346339 136 125 121
-1.474016 -0.697331 -1.163037 179 180 183
-1.764980 3.432589 -2.308562 80 62 49
-1.710001 -0.980667 -1.677635 6 0 3
0.796588 8.201192 2.099302 81 56 37
2.037857 11.279733 1.777318 195 207 218
7.726142 1.776670 0.329957 138 155 165
1.558489 8.002879 0.881627 29 8 0
0.946463 8.549914 0.742504 52 42 33
0.176108 5.165043 -1.143763 132 122 120
-0.257281 4.670965 -1.107791 13 3 1
1.197830 0.815358 -1.790564 100 87 75
-0.262052 4.766493 -1.624613 129 119 115
-2.678350 0.682890 -1.311579 113 93 79
6.014916 0.543046 0.043663 182 185 182
-2.072217 -1.050661 -0.341045 149 145 140
-2.032764 4.706355 -0.678989 54 43 39
-1.368982 -0.782954 -0.886771 33 20 0
-1.517570 0.101669 -1.109367 171 175 179
-1.237914 -0.784699 -1.212129 66 48 35
0.145486 4.074771 -2.224778 82 64 48
-1.349152 -0.392278 -1.401312 74 64 58
-1.085228 -1.439082 -1.522078 60 54 63
8.777207 1.973229 1.143843 189 228 249
-0.994485 -1.494595 0.021962 196 226 247
-1.258372 -1.121409 0.055408 184 222 255
1.685600 7.436235 -1.392567 152 145 140
1.485568 2.596354 -1.895409 86 90 95
-0.793871 4.681489 -1.757226 87 80 77
-1.140387 -0.801161 -1.338932 37 24 14
0.262052 3.883318 -2.263542 79 64 50
-1.233521 -0.758960 -1.336761 116 125 144
-1.524497 -0.582902 -1.274512 83 80 84
-1.314508 -0.767068 -1.375988 55 45 41
-2.765380 1.353277 -1.390800 33 18 10
1.743519 7.073545 1.479646 78 60 47
6.656248 0.652046 -0.307186 179 189 187
-1.270458 -1.119573 -0.906175 0 2 0
-0.597526 -0.321986 -1.175312 127 109 98
-1.492248 3.052842 -1.599968 120 114 121
-0.470900 2.878793 -2.047375 26 24 25
-1.570686 -0.702029 -1.337463 24 6 0
3.303392 5.757571 -1.353614 161 159 160
-1.324185 -1.159192 -0.878155 32 39 1
-1.072369 -0.584558 -0.994116 172 169 173
-1.574717 -1.063010 -1.710196 64 58 68
1.230954 8.745563 2.057978 62 47 35
2.068121 6.703383 1.387755 20 6 3
7.372512 4.270568 0.339110 133 143 146
-1.750961 4.409787 -0.951306 119 113 118
-1.904896 4.321011 -1.997523 63 50 42
-1.932170 -0.842207 -1.475128 57 47 47
-1.748628 4.960824 -0.617904 43 33 31
-1.462016 -0.781340 -0.770525 9 12 0
1.198995 -0.742393 2.495913 143 125 109
-0.347407 0.322979 -1.518681 173 150 128
-1.340957 -1.237590 -1.114940 132 124 115
-1.871170 2.888014 -1.812192 112 99 91
-1.587156 -0.610924 -1.509337 59 56 60
5.982019 -1.568949 0.480155 207 232 250
-0.925058 6.170373 -0.822307 54 47 46
-2.043718 3.365475 -1.749305 18 8 8
0.736570 0.770767 2.655552 115 105 94
-2.150584 2.120816 -1.464814 154 138 128
0.811528 12.036777 0.860358 134 121 107
-0.358607 1.560380 -2.125200 142 122 109
-1.213940 -1.077949 -0.715049 7 13 0
5.912441 -0.328741 0.047182 0 0 0
2.445392 6.942355 -1.690500 146 135 132
-2.748957 6.791228 -1.960328 117 92 76
2.789370 1.361060 -1.717780 43 23 9
-0.166327 5.608436 -1.368192 53 44 48
0.444061 2.294025 -1.969791 31 21 17
0.605406 7.888068 3.239627 117 102 88
1.967321 6.754003 2.752366 48 33 22
2.455450 6.896445 -1.512745 89 76 73
-0.364339 4.947491 -1.338887 85 74 70
2.782578 5.746797 1.614929 5 2 3
1.866985 2.156176 -2.458637 112 93 73
1.688492 6.889306 0.382593 97 77 64
8.717909 4.341354 2.156072 213 232 246
1.926615 6.746615 1.600266 83 65 55
2.023276 6.673419 3.069175 109 97 84
2.836531 6.444695 0.041672 86 78 78
2.113044 6.935883 2.209188 102 86 72
2.977727 6.555964 -1.745367 85 76 73
5.135896 -0.649393 -1.940012 141 149 156
5.136994 -0.649512 -1.940318 135 143 150
0.519139 -1.322646 0.359445 81 85 98
2.407947 6.824925 -0.391664 137 130 132
6.039967 2.583484 2.523240 119 114 109
1.583658 -0.341333 1.101767 0 0 0
0.778186 8.663614 -0.100881 161 152 143
1.385411 5.556686 -1.704167 129 104 83
3.470583 -1.347843 2.564250 123 118 111
4.420496 4.835705 2.867946 128 119 110
4.496294 -1.644770 1.501554 148 158 165
1.683324 6.970419 2.407543 128 109 96
7.673120 1.240365 2.133176 164 169 163
9.320592 5.174327 2.458395 134 145 143
8.516121 4.225909 2.082166 141 154 164
5.921618 4.714812 1.655979 87 67 51
4.568616 5.331828 1.526755 57 51 46
0.213945 -0.986363 0.208419 152 166 177
13.336544 17.164299 2.897917 120 95 67
-1.592116 -0.962626 0.071190 117 141 156
0.495069 -1.239637 0.034229 89 86 88
0.587205 -1.280480 -0.093169 91 68 44
3.325068 6.022363 0.567216 62 57 54
0.321742 -0.758126 -0.405306 151 145 140
0.356292 -0.724895 -0.432812 201 203 203
1.675464 7.445199 0.042690 115 100 86
3.798484 5.807438 -0.296745 57 57 57
-0.939505 -0.832815 -0.364455 118 104 85
-0.939505 -0.832815 -0.364455 118 104 85
0.308401 -0.718621 -0.529218 120 105 81
2.444024 -1.813467 -0.956392 94 78 47
2.787166 6.515878 -0.447939 148 146 147
6.395984 9.713655 -0.814865 24 23 28
2.470454 0.478420 -1.089307 100 85 71
1.217319 3.740034 -0.707233 161 162 165
3.046623 -0.346473 -1.437751 163 181 189
2.533045 -0.389041 -1.410310 135 147 152
5.675067 4.750482 -1.957795 143 150 151
2.231693 -0.171348 -1.410031 177 170 167
2.230819 -0.171325 -1.410015 177 170 167
2.925082 2.399196 -1.494326 133 114 94
1.161340 -0.549177 -1.295240 188 174 163
1.082427 -0.469258 -1.320424 127 97 61
0.172753 -0.197002 -1.142744 206 195 186
1.323679 3.523844 -1.402513 82 62 49
2.221402 7.078996 -1.580650 67 57 55
0.623379 3.583155 -1.283207 55 56 29
0.958356 3.563642 -1.399550 189 180 169
2.033216 1.431812 -1.745417 88 80 77
1.958940 1.483506 -1.733662 107 102 101
0.975978 0.310339 -1.552939 164 169 180
-1.490240 -0.807063 -0.846559 22 17 0
-0.755782 -0.512391 -1.114933 165 163 161
-0.393241 -0.134530 -1.258552 149 126 100
1.826569 5.575723 -2.002517 138 131 124
-0.995151 -0.425596 -1.152295 149 142 141
-0.986710 -0.426714 -1.155118 149 142 141
-1.303072 -1.226637 -1.074866 98 97 84
-1.144137 -0.347674 -1.165615 152 134 125
1.910790 2.545937 -2.413787 138 115 90
-1.292132 -0.209497 -1.146623 194 179 169
0.993238 3.082206 -2.105392 106 106 107
-1.672097 0.122520 -1.070567 180 178 174
-0.330797 0.919918 -1.634262 221 206 198
0.632187 4.589482 -2.193416 117 95 83
-2.157706 0.375188 -1.048588 97 85 76
-2.159187 0.281381 -1.047734 121 101 85
-1.588128 -0.652880 -1.365199 63 51 48
-0.183766 2.955076 -2.427741 6 2 4
-0.534029 3.170290 -2.335572 123 99 87
-1.572002 5.903817 -2.059260 159 147 151
-1.611562 4.640151 -2.119667 94 82 74
-1.562999 3.810535 -2.263451 47 40 37
-1.671004 3.682398 -2.260004 107 100 95
-1.680899 3.738314 -2.282199 53 43 38
1.729056 6.937454 2.554929 70 52 36
4.239675 5.118437 2.548641 125 112 102
4.643722 4.980533 1.567524 120 110 99
1.843206 7.815969 1.633776 11 1 0
1.360091 8.198014 1.429466 64 35 12
1.783965 7.538094 1.062617 46 29 16
-2.621892 -0.858101 0.031031 106 122 142
2.531018 -2.689636 -0.233433 152 166 181
1.818795 7.583408 0.885378 43 30 18
0.526360 -1.285251 -0.089303 99 82 61
4.593799 5.135715 -0.035548 148 142 136
5.690589 0.298305 -0.811955 180 189 190
-1.638444 -0.964416 -0.246621 105 111 89
0.936620 -2.096686 -0.639360 179 190 196
2.230775 6.931547 -0.163311 134 127 126
0.311260 -0.707754 -0.585490 132 106 73
3.776110 1.532704 -0.919223 203 207 208
1.065050 7.829967 -0.416596 160 153 150
1.621602 7.454576 -0.644251 104 86 75
4.032934 5.516353 -1.340329 163 161 162
2.587655 -0.327065 -1.375392 188 203 209
1.986673 7.209412 -0.998441 169 159 159
1.151455 -0.449306 -1.221739 187 175 163
-0.099639 6.675363 -0.719299 183 178 177
-1.036299 -0.936835 -0.830633 52 59 30
-1.334669 -1.343136 -0.821540 159 157 149
1.104471 -0.660217 -1.531059 132 140 147
-1.324646 -0.744640 -0.865151 36 22 5
-0.247467 4.999540 -1.271019 96 85 88
-0.440302 4.834914 -1.295336 86 75 73
-1.128438 -0.223187 -1.094019 132 132 139
-0.569493 0.429996 -1.461343 193 178 168
-0.661221 5.157413 -1.529949 9 4 6
0.528153 2.602854 -2.055234 121 114 112
-1.709920 0.061936 -1.089476 161 141 128
0.477008 2.391758 -2.095653 6 2 5
1.207117 1.778301 -2.478614 118 92 71
-1.261958 -0.422436 -1.344456 81 63 56
0.476138 2.257443 -2.361573 133 126 127
-1.152617 -1.183151 -1.466173 186 202 224
-1.556513 -0.484209 -1.389440 66 56 50
-1.022494 3.580912 -2.292401 105 91 79
-1.090974 3.565547 -2.298250 140 125 115
-1.561612 4.700014 -2.180748 90 80 71
-1.521119 3.675159 -2.202346 85 78 77
4.975801 -1.392295 3.153152 123 118 111
2.060701 6.705153 2.494398 74 56 40
1.755820 7.058990 1.462940 62 47 33
-1.575356 -0.987466 0.060353 156 181 197
4.305205 5.418412 0.633249 100 98 94
4.062123 5.257411 0.601781 100 98 94
7.456546 2.059255 -0.424315 164 183 192
